# .PCD v0.7 - Point Cloud Data file format
VERSION 0.7
FIELDS x y z
SIZE 4 4 4
TYPE F F F
COUNT 1 1 1
WIDTH 1524
HEIGHT 1
VIEWPOINT -175.905 -339.551 0 0.862797 0 0 0.505551
POINTS 1524
DATA ascii
32.515568 15.903327 -48.975574
32.582012 16.414068 -48.730419
32.644432 16.903391 -48.418804
32.708183 17.400076 -48.126724
32.771229 17.893074 -47.822372
24.24642 -52.942059 -93.890686
24.38504 -51.91552 -93.711365
24.524378 -50.879429 -93.494812
24.659504 -49.879349 -93.32486
24.796099 -48.862705 -93.104431
24.927891 -47.888062 -92.944954
25.058306 -46.923637 -92.787582
25.186892 -45.973835 -92.641869
25.31468 -45.028553 -92.48819
25.440929 -44.09586 -92.343651
25.566572 -43.16642 -92.189301
25.690754 -42.248516 -92.043129
25.8118 -41.358768 -91.943108
25.930901 -40.485977 -91.867188
26.051365 -39.597473 -91.741722
26.171238 -38.712448 -91.609444
26.290073 -37.835457 -91.48143
26.407986 -36.965473 -91.355927
26.524916 -36.103165 -91.235321
26.639563 -35.262295 -91.156029
26.755438 -34.406418 -91.025032
26.871483 -33.546295 -90.868301
26.982479 -32.737839 -90.83963
27.094002 -31.922077 -90.78138
27.208887 -31.067442 -90.599747
27.321213 -30.238508 -90.478836
27.431553 -29.429724 -90.407005
27.542101 -28.616703 -90.311844
27.652733 -27.800629 -90.195778
27.762844 -26.988449 -90.080772
27.872892 -26.174749 -89.948845
27.983408 -25.352718 -89.77494
28.092916 -24.540405 -89.621605
28.201576 -23.736328 -89.48587
28.311613 -22.911203 -89.256012
28.420464 -22.09832 -89.057114
28.528816 -21.288794 -88.856056
28.63731 -20.473335 -88.613052
28.863909 -17.840206 -80.181267
29.062256 -15.485888 -72.379166
29.157696 -14.695249 -71.541008
29.249149 -13.955441 -70.889465
29.338594 -13.236433 -70.291061
29.425259 -12.557153 -69.859322
29.513048 -11.837083 -69.149513
29.598526 -11.147484 -68.556557
29.681839 -10.493865 -68.136398
29.765017 -9.819026 -67.527
29.846577 -9.1696606 -67.034676
29.927046 -8.5343533 -66.594719
30.006708 -7.8778353 -65.924141
30.085073 -7.2459488 -65.383278
30.162415 -6.6253729 -64.875572
30.238602 -6.0077281 -64.321472
30.312634 -5.3783088 -63.533844
30.383764 -4.7443962 -62.528595
30.454441 -4.1429577 -61.771935
30.524324 -3.5584528 -61.110645
30.590437 -2.9707394 -60.188969
30.65366 -2.3937097 -59.179592
30.721098 -1.8494734 -58.710258
30.78623 -1.3087827 -58.128593
30.845596 -0.77174366 -57.221718
30.904119 -0.24890082 -56.383713
30.969009 0.26357189 -56.027477
31.034006 0.77272791 -55.706146
31.102964 1.2840312 -55.611462
31.170366 1.7938297 -55.433281
31.237257 2.3024719 -55.233429
31.304333 2.8111391 -55.044865
31.371193 3.3191087 -54.848785
31.438227 3.8273745 -54.661018
31.505245 4.3355784 -54.472725
31.572634 4.8449888 -54.297161
31.640362 5.3557477 -54.13092
31.705965 5.8594742 -53.893406
31.771561 6.3628874 -53.658058
31.83779 6.8684983 -53.443157
31.902777 7.3692694 -53.192719
31.965342 7.8599849 -52.878174
32.030529 8.3609142 -52.638863
32.103569 8.8954105 -52.598629
32.170467 9.4046183 -52.39444
32.235077 9.9038963 -52.1334
32.306705 10.43521 -52.033127
32.37627 10.9581 -51.877186
32.439808 11.453185 -51.585686
32.501091 11.937223 -51.248962
32.564846 12.432898 -50.965687
32.628414 12.927619 -50.67915
32.692749 13.426157 -50.407269
32.756374 13.921205 -50.121517
32.817291 14.402317 -49.787018
32.881096 14.898263 -49.504635
32.952152 15.432494 -49.343204
33.018246 15.941299 -49.092632
33.080418 16.429419 -48.776108
33.14407 16.925566 -48.482433
33.210312 17.436104 -48.22649
33.273682 17.931213 -47.924408
24.75898 -52.920013 -93.851578
24.899492 -51.875992 -93.640007
25.037981 -50.847576 -93.436287
25.172682 -49.851288 -93.272354
25.307795 -48.848362 -93.077103
25.439497 -47.874435 -92.918503
25.571398 -46.895908 -92.73275
25.698318 -45.961815 -92.617645
25.825071 -45.026791 -92.484619
25.953634 -44.071835 -92.293396
26.080235 -43.132954 -92.117882
26.202482 -42.233681 -92.010864
26.325319 -41.326256 -91.870872
26.445129 -40.446213 -91.777016
26.564049 -39.572773 -91.684555
26.685081 -38.675915 -91.523056
26.802141 -37.816597 -91.43589
26.920042 -36.946568 -91.309273
27.036545 -36.088509 -91.198341
27.149151 -35.268703 -91.172653
27.266907 -34.393124 -90.989922
27.384014 -33.521587 -90.801445
27.495821 -32.704094 -90.746063
27.6073 -31.888411 -90.685707
27.719397 -31.064093 -90.590057
27.832506 -30.226345 -90.44252
27.943232 -29.413019 -90.355766
28.052979 -28.608994 -90.28759
28.164305 -27.784634 -90.143974
28.275297 -26.961662 -89.991447
28.386065 -26.1387 -89.82505
28.494825 -25.337688 -89.721817
28.604876 -24.518171 -89.540504
28.713652 -23.712 -89.394249
28.823481 -22.889013 -89.16967
28.932104 -22.07859 -88.977707
29.039574 -21.280972 -88.823517
29.151361 -20.416651 -88.367821
29.382332 -17.714083 -79.614532
29.560062 -15.685079 -73.31028
29.672388 -14.61937 -71.17173
29.763893 -13.873956 -70.47567
29.849838 -13.216464 -70.185158
29.93779 -12.508605 -69.589378
30.023802 -11.824452 -69.075882
30.108168 -11.162239 -68.647461
30.192118 -10.491737 -68.122757
30.274914 -9.8307009 -67.607468
30.356606 -9.1788054 -67.101715
30.437237 -8.5357485 -66.605804
30.516886 -7.8903346 -66.028961
30.595348 -7.2541599 -65.457603
30.672855 -6.6366768 -64.986519
30.748962 -6.0119948 -64.367439
30.823536 -5.3913221 -63.687889
30.895151 -4.7600126 -62.734756
30.9653 -4.1492376 -61.865959
31.034502 -3.5582056 -61.106853
31.101696 -2.9762013 -60.299778
31.165979 -2.401715 -59.377701
31.230629 -1.8476354 -58.652145
31.295994 -1.3079932 -58.093868
31.3589 -0.77464151 -57.437141
31.419323 -0.25030652 -56.703838
31.482876 0.26459852 -56.244251
31.549141 0.77650595 -55.978004
31.614567 1.2856889 -55.682892
31.681335 1.7950156 -55.469727
31.749237 2.3058279 -55.313755
31.818323 2.8194394 -55.207249
31.883997 3.3254988 -54.954273
31.950668 3.8334043 -54.747021
32.018578 4.3447146 -54.587425
32.086941 4.8578057 -54.440727
32.155716 5.3727951 -54.303146
32.222897 5.8828964 -54.108757
32.289642 6.3915668 -53.899841
32.355991 6.8987703 -53.678654
32.422035 7.4047685 -53.448902
32.486748 7.9053378 -53.183247
32.551334 8.4050798 -52.916882
32.619373 8.9193401 -52.74007
32.684902 9.4231176 -52.497459
32.748356 9.9176311 -52.205662
32.816868 10.434967 -52.031879
32.889538 10.972314 -51.944447
32.954666 11.475191 -51.684772
33.016521 11.962354 -51.356815
33.080513 12.459581 -51.075031
33.146908 12.96872 -50.840256
33.211761 13.470459 -50.573566
33.276379 13.971109 -50.301159
33.339279 14.463061 -49.996979
33.402267 14.955425 -49.694557
33.472218 15.48452 -49.50946
33.5382 15.993252 -49.252533
33.600052 16.480141 -48.92662
33.662457 16.969999 -48.609634
33.72794 17.476767 -48.338879
33.79388 17.986382 -48.071777
25.252697 -52.889046 -93.796616
25.393093 -51.845928 -93.585693
25.530807 -50.824528 -93.39389
25.666397 -49.819897 -93.21357
25.799982 -48.831047 -93.04406
25.932201 -47.852173 -92.875244
26.063652 -46.877785 -92.696861
26.193069 -45.919868 -92.533073
26.320953 -44.973766 -92.375664
26.445707 -44.055107 -92.258308
26.573956 -43.100174 -92.047829
26.694813 -42.214226 -91.96843
26.816362 -41.319305 -91.85537
26.939447 -40.406807 -91.687546
27.058521 -39.531563 -91.589035
27.178425 -38.645702 -91.451508
27.294632 -37.794777 -91.383072
27.412874 -36.921043 -91.246132
27.528912 -36.067539 -91.145287
27.643148 -35.230576 -91.074028
27.759079 -34.373791 -90.938713
27.874855 -33.516186 -90.786758
27.988264 -32.681419 -90.683083
28.100391 -31.858391 -90.600266
28.212059 -31.038431 -90.515144
28.324608 -30.206591 -90.383347
28.436327 -29.38172 -90.259544
28.546038 -28.577587 -90.1884
28.655964 -27.769108 -90.093521
28.767845 -26.935268 -89.903267
28.878971 -26.107409 -89.717438
28.987333 -25.310713 -89.626205
29.096708 -24.499149 -89.470947
29.206215 -23.682999 -89.284821
29.315317 -22.868919 -89.091301
29.423489 -22.064133 -88.91935
29.530909 -21.266741 -88.764023
29.641743 -20.415958 -88.364731
29.890541 -17.439707 -78.381264
30.038548 -15.875441 -74.19989
30.162012 -14.631369 -71.230026
30.255882 -13.844235 -70.324585
30.340837 -13.203657 -70.11702
30.42787 -12.513875 -69.618561
30.51408 -11.825727 -69.083191
30.597521 -11.187785 -68.80442
30.681763 -10.512687 -68.258621
30.764915 -9.8431683 -67.693039
30.846651 -9.1935177 -67.209099
30.92741 -8.5495434 -66.713264
31.007174 -7.9079194 -66.175911
31.085701 -7.2567096 -65.480392
31.163254 -6.639864 -65.017487
31.239786 -6.0259409 -64.516495
31.313986 -5.3935404 -63.713799
31.386461 -4.7729902 -62.905476
31.457462 -4.1669569 -62.129791
31.526981 -3.573566 -61.370213
31.595339 -2.9936993 -60.65419
31.65897 -2.4119053 -59.629498
31.721165 -1.8482119 -58.670265
31.78602 -1.3074905 -58.071301
31.850197 -0.77556539 -57.505276
31.912334 -0.25107369 -56.876461
31.977932 0.26591656 -56.525673
32.045906 0.78143907 -56.333996
32.112625 1.2949095 -56.082443
32.178421 1.8056117 -55.797344
32.244991 2.3161492 -55.561474
32.31255 2.828023 -55.375439
32.379692 3.3387547 -55.17342
32.44627 3.8477125 -54.95145
32.513229 4.3573999 -54.746872
32.58046 4.8678141 -54.552948
32.650085 5.3862238 -54.438931
32.71925 5.9039268 -54.302246
32.787178 6.4178486 -54.12151
32.854195 6.9286404 -53.911095
32.920006 7.4347973 -53.665691
32.98587 7.940999 -53.423195
33.051853 8.4476089 -53.184673
33.119297 8.9604549 -52.983219
33.1866 9.4730129 -52.775467
33.249321 9.9653339 -52.456787
33.312237 10.458048 -52.146996
33.379551 10.970875 -51.937664
33.447285 11.4861 -51.733932
33.512791 11.991035 -51.479977
33.578915 12.499083 -51.237064
33.645859 13.011525 -51.008156
33.71011 13.510781 -50.725048
33.772503 14.000613 -50.407475
33.836964 14.500956 -50.128056
33.903633 15.012959 -49.885818
33.967793 15.512139 -49.597843
34.032749 16.015709 -49.321766
34.096134 16.511066 -49.018505
34.160275 17.010618 -48.726051
34.226223 17.520271 -48.459274
34.292038 18.029575 -48.18729
25.761515 -52.88459 -93.788719
25.904198 -51.820393 -93.539604
26.038971 -50.826069 -93.396729
26.174988 -49.817413 -93.208931
26.309044 -48.8242 -93.031006
26.441156 -47.846294 -92.863838
26.572948 -46.868641 -92.678787
26.702866 -45.905899 -92.504921
26.835678 -44.912624 -92.250084
26.959318 -44.004303 -92.151917
27.085003 -43.073841 -91.991592
27.205637 -42.189899 -91.915428
27.326597 -41.300598 -91.813789
27.4489 -40.395706 -91.662354
27.569323 -39.506927 -91.531944
27.688988 -38.62328 -91.398453
27.806931 -37.754551 -91.285812
27.924232 -36.890095 -91.169647
28.040779 -36.03104 -91.053055
28.155298 -35.190796 -90.971191
28.268761 -34.359558 -90.90107
28.383905 -33.508511 -90.765961
28.498663 -32.659142 -90.621269
28.610643 -31.837467 -90.540764
28.723234 -31.007029 -90.423576
28.835451 -30.178465 -90.299194
28.9475 -29.349442 -90.160385
29.057684 -28.539379 -90.067825
29.167425 -27.73242 -89.974503
29.278345 -26.909369 -89.816818
29.387936 -26.099674 -89.690865
29.496895 -25.295404 -89.571999
29.606579 -24.479563 -89.399414
29.715927 -23.665012 -89.217018
29.824308 -22.860077 -89.056854
29.932941 -22.048672 -88.85704
30.040937 -21.24258 -88.663177
30.149281 -20.427586 -88.415047
30.264847 -19.496841 -87.626892
30.573034 -15.455196 -72.235725
30.672449 -14.595694 -71.056358
30.763859 -13.850544 -70.356628
30.850695 -13.17424 -69.960808
30.936499 -12.507575 -69.583519
31.023132 -11.809042 -68.985725
31.107014 -11.157399 -68.617554
31.190388 -10.503632 -68.199837
31.272974 -9.8532867 -67.762634
31.354784 -9.2034445 -67.28167
31.435614 -8.5602303 -66.796661
31.515472 -7.9199972 -66.276985
31.593975 -7.2499547 -65.419449
31.671143 -6.6184998 -64.808296
31.747787 -6.0166988 -64.417549
31.822155 -5.3905559 -63.678555
31.89456 -4.7699556 -62.865486
31.966524 -4.1740518 -62.235592
32.037117 -3.5864763 -61.591942
32.106136 -3.0067012 -60.917633
32.172325 -2.4310772 -60.1035
32.235466 -1.8641065 -59.17487
32.298542 -1.3147105 -58.392002
32.36137 -0.77824378 -57.703922
32.426804 -0.25281474 -57.270916
32.492805 0.2677466 -56.914494
32.560654 0.78636324 -56.688984
32.627136 1.3022813 -56.401711
32.697018 1.8217106 -56.294815
32.764591 2.3375793 -56.075527
32.829384 2.8467336 -55.741802
32.894596 3.3549783 -55.441525
32.961117 3.8653841 -55.203823
33.028061 4.376472 -54.986492
33.095352 4.8883758 -54.783375
33.163937 5.4045429 -54.624069
33.232483 5.9210467 -54.459702
33.299786 6.4334526 -54.25309
33.367123 6.9460864 -54.046844
33.434231 7.4579558 -53.832848
33.501953 7.9724383 -53.634693
33.568253 8.4812727 -53.39661
33.635422 8.9938354 -53.180595
33.701866 9.503438 -52.944962
33.767323 10.008717 -52.685154
33.832092 10.510813 -52.410095
33.897228 11.014477 -52.144073
33.962032 11.516558 -51.871109
34.028156 12.02497 -51.625652
34.094345 12.53393 -51.379829
34.158066 13.030854 -51.083851
34.221951 13.528543 -50.79166
34.28521 14.023017 -50.488064
34.350628 14.528559 -50.223412
34.42009 15.055464 -50.026978
34.486229 15.565536 -49.768513
34.547714 16.051142 -49.430832
34.610012 16.540998 -49.107304
34.674984 17.045338 -48.825443
34.740395 17.552341 -48.547924
34.804691 18.053532 -48.251263
26.263103 -52.840664 -93.710823
26.404314 -51.789814 -93.484413
26.536352 -50.820633 -93.386742
26.671946 -49.81591 -93.206131
26.807449 -48.809147 -93.002342
26.938793 -47.83839 -92.848518
27.071474 -46.852257 -92.646393
27.201521 -45.888222 -92.469307
27.331511 -44.921837 -92.26902
27.4592 -43.974594 -92.089714
27.583614 -43.056271 -91.954071
27.704998 -42.16489 -91.860954
27.827667 -41.258648 -91.720535
27.949511 -40.357979 -91.576767
28.06811 -39.487068 -91.485954
28.18696 -38.611412 -91.370377
28.307152 -37.719856 -91.201942
28.425564 -36.843731 -91.055069
28.541597 -35.989536 -90.948189
28.656391 -35.146027 -90.855469
28.769522 -34.317822 -90.790657
28.883009 -33.483952 -90.699448
28.998341 -32.628136 -90.535248
29.109905 -31.810591 -90.464348
29.22298 -30.974451 -90.328575
29.334599 -30.152174 -90.220535
29.446568 -29.323648 -90.081169
29.555813 -28.524 -90.019302
29.666042 -27.711073 -89.905251
29.776287 -26.89567 -89.771118
29.885683 -26.088087 -89.651062
29.996365 -25.262197 -89.45443
30.105396 -24.453869 -89.305603
30.214596 -23.640623 -89.125084
30.321758 -22.851299 -89.022667
30.430912 -22.032478 -88.791801
30.539368 -21.219284 -88.565964
30.648157 -20.396894 -88.282234
30.758144 -19.550524 -87.868179
31.045967 -15.83852 -74.027351
31.174873 -14.50043 -70.592598
31.262171 -13.823285 -70.218185
31.347597 -13.172148 -69.949722
31.433649 -12.500152 -69.542244
31.517857 -11.85675 -69.26445
31.602692 -11.186486 -68.796463
31.68742 -10.496349 -68.152573
31.769653 -9.8576221 -67.79248
31.851364 -9.2144222 -67.361954
31.932341 -8.5661316 -66.842743
32.012257 -7.9236703 -66.307762
32.09095 -7.2723532 -65.621605
32.16832 -6.6370635 -64.99012
32.244251 -6.0073047 -64.317017
32.319012 -5.3916855 -63.691948
32.392792 -4.7890439 -63.117119
32.464939 -4.1897392 -62.469555
32.53624 -3.6031024 -61.877544
32.604073 -3.0126936 -61.039139
32.671253 -2.439218 -60.304874
32.736023 -1.8741137 -59.492672
32.798313 -1.3198299 -58.619568
32.86615 -0.78575987 -58.261543
32.930676 -0.25481638 -57.725502
32.995712 0.26945966 -57.277725
33.061195 0.78923923 -56.895943
33.127995 1.3071356 -56.611752
33.194927 1.823467 -56.348938
33.259357 2.3337328 -55.983131
33.328274 2.8513424 -55.831951
33.398399 3.3722773 -55.727299
33.462879 3.8788543 -55.396114
33.527889 4.3853679 -55.098194
33.597126 4.9039793 -54.958183
33.666115 5.4224148 -54.804653
33.733864 5.9370513 -54.606857
33.801384 6.4509778 -54.400856
33.869274 6.9664049 -54.204903
33.93808 7.4856715 -54.032883
34.006897 8.0054789 -53.856945
34.073059 8.5147009 -53.607033
34.138638 9.0213432 -53.343224
34.204288 9.5281363 -53.082542
34.270084 10.035468 -52.825947
34.336315 10.544788 -52.579491
34.401756 11.050524 -52.31472
34.466129 11.551224 -52.027225
34.532078 12.059369 -51.773319
34.599499 12.57488 -51.547672
34.662868 13.070659 -51.239872
34.724129 13.555648 -50.89341
34.787121 14.049105 -50.581978
34.851704 14.550657 -50.299774
34.921219 15.078098 -50.10218
34.987801 15.590732 -49.849056
35.050148 16.081188 -49.523342
35.111206 16.564667 -49.177559
35.176826 17.072737 -48.903919
35.242279 17.580223 -48.625023
35.305389 18.075075 -48.308838
26.768991 -52.807884 -93.652695
26.907429 -51.782406 -93.471046
27.040827 -50.800621 -93.34996
27.176754 -49.792702 -93.162697
27.311758 -48.790485 -92.966782
27.442055 -47.829449 -92.831154
27.575628 -46.834858 -92.611984
27.707422 -45.854099 -92.400536
27.836203 -44.899059 -92.222229
27.963438 -43.956081 -92.050941
28.088779 -43.028603 -91.894981
28.211615 -42.122917 -91.769508
28.334036 -41.218803 -91.631966
28.455334 -40.323235 -91.497925
28.575378 -39.437679 -91.371521
28.692123 -38.582767 -91.302589
28.810347 -37.710899 -91.180283
28.929255 -36.829636 -91.020241
29.046394 -35.963917 -90.883438
29.158737 -35.145653 -90.854507
29.27549 -34.279358 -90.688904
29.389084 -33.443939 -90.591057
29.502537 -32.607849 -90.478951
29.614574 -31.784903 -90.391289
29.727131 -30.954166 -90.269417
29.8391 -30.127676 -90.147224
29.950842 -29.301376 -90.012741
30.060368 -28.498152 -89.937721
30.169441 -27.698311 -89.863846
30.279736 -26.882113 -89.725853
30.390705 -26.055155 -89.53788
30.502346 -25.216642 -89.293114
30.609032 -24.437069 -89.24424
30.718925 -23.614334 -89.02597
30.826433 -22.819708 -88.899597
30.93457 -22.013927 -88.717033
31.043077 -21.199423 -88.483055
31.151701 -20.378733 -88.203613
31.260347 -19.552177 -87.875603
31.48605 -16.838261 -78.70002
31.64397 -15.062407 -73.328468
31.763363 -13.843354 -70.320122
31.84852 -13.19883 -70.0914
31.934841 -12.523543 -69.672363
32.019188 -11.879316 -69.396263
32.103443 -11.227101 -69.046234
32.188801 -10.524692 -68.336586
32.271687 -9.8680067 -67.863884
32.353584 -9.2190161 -67.395531
32.434605 -8.5701246 -66.873886
32.514545 -7.9323788 -66.380623
32.593536 -7.3062801 -65.927719
32.671474 -6.6781001 -65.39193
32.747665 -6.0385184 -64.651192
32.821793 -5.4005671 -63.796844
32.896099 -4.8022494 -63.291138
32.970436 -4.2205448 -62.928852
33.043972 -3.6418426 -62.542812
33.112873 -3.0468702 -61.731548
33.177933 -2.4558773 -60.716705
33.236061 -1.8680668 -59.300659
33.293781 -1.3080497 -58.096294
33.359261 -0.77709615 -57.619015
33.432564 -0.2546986 -57.698376
33.500538 0.27016178 -57.427277
33.566433 0.79148275 -57.057728
33.637039 1.315163 -56.959499
33.703827 1.8337948 -56.668156
33.762245 2.334826 -56.009399
33.824692 2.8383839 -55.578239
33.901943 3.3753173 -55.77758
33.970245 3.89255 -55.591747
34.034405 4.397686 -55.252995
34.102013 4.9120502 -55.048645
34.171928 5.4340353 -54.922134
34.240322 5.951508 -54.739849
34.310505 6.4757943 -54.610142
34.377731 6.9897051 -54.386208
34.446533 7.5097899 -54.206985
34.514584 8.0272617 -54.003506
34.58152 8.5403643 -53.768623
34.647888 9.0510559 -53.518925
34.713558 9.5586529 -53.252563
34.779121 10.065627 -52.984711
34.845737 10.577345 -52.741833
34.91209 11.087942 -52.491863
34.976608 11.589975 -52.201771
35.041634 12.094302 -51.923302
35.109375 12.611935 -51.699577
35.173058 13.109781 -51.39325
35.234657 13.597034 -51.048786
35.296585 14.085586 -50.713326
35.361263 14.588078 -50.429142
35.425076 15.086152 -50.128944
35.48774 15.578206 -49.809013
35.55265 16.082214 -49.526508
35.620789 16.603769 -49.293648
35.686314 17.1117 -49.015526
35.750839 17.614449 -48.719685
35.815922 18.120483 -48.430191
27.233555 -52.781025 -93.60508
27.371645 -51.758602 -93.428101
27.506212 -50.765873 -93.286133
27.641552 -49.763248 -93.10762
27.774986 -48.775543 -92.938339
27.907259 -47.795868 -92.765999
28.038612 -46.82206 -92.586716
28.171396 -45.831821 -92.355675
28.301815 -44.860973 -92.144028
28.428511 -43.922947 -91.981583
28.553438 -42.999287 -91.832405
28.67561 -42.099861 -91.719307
28.797062 -41.205105 -91.601532
28.918579 -40.307255 -91.461693
29.039616 -39.411686 -91.311333
29.157686 -38.543262 -91.209129
29.276072 -37.669418 -91.080025
29.39179 -36.820351 -90.99733
29.510818 -35.935089 -90.810631
29.623203 -35.116112 -90.778168
29.739159 -34.2579 -90.632164
29.853447 -33.414852 -90.512306
29.965807 -32.590183 -90.42997
30.079304 -31.751135 -90.295303
30.191692 -30.921843 -90.175201
30.302885 -30.103584 -90.07518
30.414564 -29.277628 -89.939827
30.525385 -28.459103 -89.814529
30.634745 -27.655283 -89.724281
30.744123 -26.849216 -89.616112
30.854504 -26.028778 -89.447289
30.965471 -25.198055 -89.227341
31.072468 -24.414112 -89.160454
31.180849 -23.610527 -89.011673
31.28937 -22.802246 -88.831627
31.397831 -21.991472 -88.626595
31.506031 -21.180586 -88.404495
31.613733 -20.372782 -88.177925
31.722542 -19.543501 -87.83667
31.832575 -18.687441 -87.342926
32.066395 -15.725744 -76.557877
32.223923 -13.862593 -70.417923
32.310223 -13.197477 -70.084297
32.395996 -12.533404 -69.72731
32.48111 -11.87265 -69.357407
32.565483 -11.216491 -68.981071
32.649933 -10.539933 -68.435646
32.732944 -9.8821115 -67.960983
32.815155 -9.2219887 -67.417366
32.896126 -8.579608 -66.947998
32.976135 -7.9486408 -66.51683
33.055325 -7.3256927 -66.10302
33.133553 -6.6998663 -65.605209
33.210403 -6.0699024 -64.987358
33.284599 -5.4226084 -64.057388
33.358261 -4.8093152 -63.384457
33.432007 -4.2199717 -62.920517
33.507492 -3.6553183 -62.774487
33.580257 -3.0771589 -62.345509
33.647816 -2.4873581 -61.495365
33.708771 -1.8975472 -60.236973
33.765808 -1.3259393 -58.891495
33.824295 -0.78028953 -57.856846
33.888474 -0.25306267 -57.331036
33.957558 0.26888725 -57.15337
34.031372 0.79403543 -57.240749
34.105648 1.3235 -57.319962
34.178867 1.8548331 -57.317883
34.238014 2.3617229 -56.654293
34.296051 2.859796 -55.997215
34.369461 3.3898671 -56.017769
34.438557 3.9106817 -55.850483
34.504669 4.4230137 -55.571018
34.571388 4.9363298 -55.320591
34.639374 5.4533386 -55.117077
34.709824 5.9789791 -54.992378
34.781658 6.5105305 -54.902946
34.848324 7.0237093 -54.650677
34.913795 7.5319252 -54.366657
34.981071 8.0469656 -54.135963
35.048531 8.5628061 -53.909824
35.116676 9.0817137 -53.700119
35.183369 9.5945358 -53.452381
35.248367 10.099788 -53.164448
35.313393 10.604914 -52.879219
35.379375 11.114333 -52.616734
35.444862 11.621426 -52.343353
35.50985 12.126089 -52.0597
35.573143 12.622422 -51.742508
35.637424 13.123393 -51.446541
35.700413 13.617809 -51.126724
35.765335 14.121913 -50.84407
35.831703 14.633551 -50.586288
35.897022 15.140018 -50.307884
35.959335 15.630807 -49.977146
36.022732 16.127253 -49.665161
36.090958 16.649725 -49.430038
36.157654 17.164429 -49.166523
36.221924 17.666245 -48.862911
36.286926 18.172264 -48.568542
27.735413 -52.778133 -93.59996
27.875637 -51.736099 -93.387497
28.010733 -50.738365 -93.235611
28.146456 -49.732037 -93.049232
28.281422 -48.729851 -92.85128
28.412886 -47.757549 -92.69165
28.545876 -46.768051 -92.479927
28.67598 -45.802956 -92.297523
28.806194 -44.833939 -92.088509
28.932131 -43.903 -91.939819
29.057732 -42.972729 -91.775703
29.178875 -42.083111 -91.682831
29.299053 -41.20071 -91.591789
29.421881 -40.289906 -91.422348
29.542467 -39.398674 -91.281197
29.660633 -38.529198 -91.175865
29.780458 -37.640636 -91.010452
29.895824 -36.794945 -90.934555
30.013578 -35.922558 -90.778984
30.129522 -35.06641 -90.649704
30.243904 -34.22422 -90.543083
30.357243 -33.390919 -90.447502
30.470081 -32.560837 -90.348557
30.583815 -31.718874 -90.203575
30.696119 -30.890072 -90.082573
30.805912 -30.087036 -90.025688
30.917625 -29.260466 -89.887123
31.028475 -28.441307 -89.758392
31.13899 -27.623665 -89.621735
31.249008 -26.809404 -89.483253
31.358038 -26.004599 -89.364227
31.467894 -25.187168 -89.188812
31.576048 -24.388304 -89.066231
31.68347 -23.596529 -88.958923
31.792173 -22.785435 -88.766159
31.90111 -21.967607 -88.530457
32.00808 -21.173414 -88.374588
32.114861 -20.37896 -88.204697
32.224689 -19.53426 -87.795174
32.336411 -18.650675 -87.171135
32.554035 -15.961097 -77.703682
32.708076 -14.174896 -72.004364
32.811504 -13.202514 -70.111084
32.897209 -12.540372 -69.766113
32.982174 -11.883763 -69.422371
33.066936 -11.218822 -68.995453
33.150517 -10.569174 -68.625557
33.233349 -9.9250278 -68.25618
33.316284 -9.2433081 -67.57328
33.397556 -8.5892878 -67.023598
33.477654 -7.9612141 -66.622116
33.55687 -7.3253784 -66.10025
33.635162 -6.7031293 -65.637238
33.712772 -6.0930882 -65.23568
33.78764 -5.4507041 -64.389389
33.860802 -4.8224683 -63.557911
33.934612 -4.2302108 -63.073303
34.00766 -3.6454678 -62.605453
34.081097 -3.0734286 -62.270077
34.150867 -2.4930873 -61.637192
34.221676 -1.9277669 -61.196537
34.282269 -1.3516147 -60.032219
34.340614 -0.79419434 -58.888462
34.404373 -0.25712353 -58.252853
34.467819 0.27133226 -57.671276
34.538216 0.79810429 -57.533531
34.609028 1.3256953 -57.41465
34.681171 1.85603 -57.354572
34.746288 2.3745196 -56.961063
34.808392 2.8835409 -56.462009
34.875477 3.4008982 -56.199932
34.944489 3.9225771 -56.020264
35.011688 4.4390635 -55.772572
35.079124 4.9556804 -55.537556
35.148251 5.4776177 -55.362595
35.217846 6.0015316 -55.199909
35.288322 6.5291352 -55.05994
35.355843 7.0463014 -54.82655
35.421745 7.5570188 -54.547863
35.489021 8.0728674 -54.310287
35.556988 8.5915899 -54.091099
35.625332 9.1121092 -53.879917
35.69281 9.6291065 -53.645042
35.757088 10.131907 -53.33358
35.821598 10.635331 -53.030952
35.887043 11.142812 -52.751606
35.951355 11.644835 -52.448849
36.016251 12.149453 -52.160061
36.08025 12.64959 -51.853924
36.14407 13.148667 -51.545673
36.208443 13.6504 -51.249138
36.273067 14.153368 -50.957352
36.338871 14.662495 -50.686375
36.404236 15.169518 -50.405949
36.468575 15.671302 -50.10667
36.532677 16.171934 -49.802799
36.597153 16.674673 -49.504139
36.661598 17.177364 -49.203617
36.728703 17.694824 -48.941998
36.796307 18.215458 -48.684021
28.261053 -52.767059 -93.580292
28.401159 -51.72604 -93.369301
28.536684 -50.724277 -93.209679
28.671406 -49.72718 -93.040115
28.808952 -48.700909 -92.796097
28.942808 -47.705948 -92.591454
29.076 -46.714264 -92.373528
29.204393 -45.765091 -92.221184
29.332973 -44.811462 -92.042305
29.457319 -43.895721 -91.924545
29.582769 -42.966816 -91.763031
29.705217 -42.064472 -91.642189
29.826044 -41.175575 -91.535866
29.948334 -40.269909 -91.37693
30.068117 -39.386517 -91.252998
30.18647 -38.515064 -91.14238
30.305923 -37.630154 -90.985046
30.422697 -36.769985 -90.872818
30.539541 -35.906757 -90.739006
30.656252 -35.042461 -90.587746
30.771366 -34.192333 -90.458679
30.884638 -33.359379 -90.362022
30.997112 -32.532864 -90.270889
31.110489 -31.69442 -90.133972
31.222706 -30.86631 -90.013222
31.332497 -30.062941 -89.953529
31.442852 -29.251429 -89.859306
31.554712 -28.420488 -89.692627
31.665688 -27.597078 -89.535416
31.775244 -26.787859 -89.41127
31.884041 -25.98546 -89.298386
31.993324 -25.174755 -89.144798
32.102211 -24.36631 -88.98584
32.209858 -23.571043 -88.86277
32.318417 -22.761173 -88.671562
32.426735 -21.951166 -88.464111
32.53294 -21.167309 -88.34903
32.639954 -20.369129 -88.162064
32.749783 -19.524078 -87.749329
32.893353 -18.128338 -84.729691
33.085297 -15.845436 -77.140518
33.211189 -14.557787 -73.949242
33.334843 -13.223527 -70.222565
33.420105 -12.572454 -69.944489
33.505966 -11.898393 -69.507713
33.590927 -11.230245 -69.065582
33.674736 -10.57555 -68.666832
33.757771 -9.9252577 -68.257622
33.840466 -9.2559042 -67.665215
33.92197 -8.5907774 -67.035065
34.002094 -7.9551306 -66.571037
34.081268 -7.3219986 -66.06958
34.159481 -6.6978254 -65.585106
34.236649 -6.0774994 -65.068565
34.312321 -5.455411 -64.444748
34.38657 -4.84026 -63.792133
34.461105 -4.2502003 -63.371044
34.534782 -3.6647291 -62.935905
34.606964 -3.0810118 -62.423321
34.680305 -2.5122225 -62.10981
34.755165 -1.951901 -61.962051
34.818916 -1.3726772 -60.966816
34.879944 -0.80824989 -59.929161
34.943031 -0.26117802 -59.166782
35.005516 0.27502075 -58.459724
35.072445 0.80559838 -58.075237
35.140064 1.3335534 -57.755878
35.209412 1.8619866 -57.539276
35.276268 2.385056 -57.214291
35.340878 2.9012492 -56.809143
35.406555 3.4172931 -56.47118
35.473743 3.9356363 -56.20705
35.540943 4.4531922 -55.950336
35.608646 4.9716725 -55.716789
35.678204 5.495995 -55.548325
35.749996 6.0285029 -55.447987
35.81797 6.5482035 -55.220745
35.8862 7.06881 -55.00169
35.954964 7.5915852 -54.797367
36.0229 8.1112175 -54.568298
36.089855 8.6268272 -54.312962
36.156071 9.1391754 -54.039963
36.223015 9.6545019 -53.786526
36.288292 10.162323 -53.493694
36.353645 10.670239 -53.205021
36.416656 11.167047 -52.866337
36.480633 11.667899 -52.552734
36.546024 12.175274 -52.270916
36.612572 12.688285 -52.012543
36.676716 13.18955 -51.705944
36.741165 13.692215 -51.406128
36.80547 14.194079 -51.103935
36.86969 14.695517 -50.800537
36.933929 15.197059 -50.497463
36.998009 15.697778 -50.191315
37.061718 16.196568 -49.878662
37.125446 16.695509 -49.566002
37.189209 17.1947 -49.253269
37.258465 17.724096 -49.022957
37.330017 18.266756 -48.821125
28.777256 -52.737141 -93.527222
28.915565 -51.712517 -93.344887
29.04899 -50.730114 -93.220398
29.184917 -49.721867 -93.030167
29.32201 -48.699745 -92.793884
29.457989 -47.684902 -92.550606
29.591032 -46.694496 -92.334435
29.718838 -45.750809 -92.192398
29.846447 -44.806339 -92.031776
29.972351 -43.875568 -91.882324
30.096966 -42.954624 -91.736977
30.221203 -42.034775 -91.577477
30.343288 -41.13332 -91.441925
30.462965 -40.253166 -91.338921
30.58271 -39.370029 -91.214783
30.70282 -38.480793 -91.061272
30.822454 -37.593784 -90.89711
30.93984 -36.727028 -90.766655
31.055943 -35.871059 -90.648781
31.171818 -35.015091 -90.516983
31.287264 -34.161194 -90.376282
31.3997 -33.336796 -90.300835
31.512213 -32.509602 -90.206329
31.627317 -31.652063 -90.013512
31.738302 -30.836975 -89.927658
31.849205 -30.020792 -89.827408
31.958735 -29.218014 -89.756653
32.069901 -28.394575 -89.61084
32.181183 -27.567127 -89.438225
32.290337 -26.762182 -89.325562
32.398415 -25.967976 -89.238297
32.507736 -25.156443 -89.079933
32.616631 -24.347477 -88.917046
32.724831 -23.544592 -88.763039
32.832767 -22.742283 -88.597961
32.940113 -21.945091 -88.439613
33.047207 -21.148438 -88.270241
33.154568 -20.344446 -88.055206
33.262962 -19.520327 -87.732445
33.450947 -17.41087 -81.376312
33.609875 -15.648476 -76.181633
33.706642 -14.871817 -75.544395
33.848755 -13.204735 -70.122749
33.933273 -12.567595 -69.917427
34.018635 -11.904594 -69.543922
34.103722 -11.23407 -69.089081
34.187527 -10.580081 -68.69622
34.270878 -9.9187946 -68.21315
34.353306 -9.2609644 -67.702179
34.434696 -8.608881 -67.176292
34.515015 -7.9616194 -66.625305
34.594261 -7.328558 -66.128731
34.672817 -6.717124 -65.774033
34.750088 -6.091702 -65.220581
34.825542 -5.4607873 -64.508209
34.901283 -4.8638678 -64.103218
34.975868 -4.267868 -63.634418
35.049221 -3.6754763 -63.120392
35.122284 -3.0935678 -62.677628
35.194935 -2.5186768 -62.269272
35.269276 -1.955029 -62.06118
35.340061 -1.3868147 -61.59454
35.405838 -0.82045776 -60.833977
35.471355 -0.26554501 -60.154881
35.534355 0.27946258 -59.404606
35.599075 0.81609368 -58.832157
35.661957 1.3442298 -58.218475
35.727421 1.8699312 -57.784904
35.794266 2.3946698 -57.445072
35.860096 2.9150553 -57.079571
35.927734 3.4376326 -56.80735
35.991535 3.9487863 -56.394894
36.057255 4.4630828 -56.074661
36.127884 4.9914074 -55.938019
36.199738 5.5245008 -55.836483
36.272163 6.0606904 -55.744072
36.340691 6.583868 -55.521538
36.40773 7.1013937 -55.255272
36.477356 7.6286941 -55.065266
36.545872 8.1518927 -54.841988
36.611885 8.6647558 -54.551773
36.677544 9.175724 -54.256096
36.743183 9.6861954 -53.963131
36.808582 10.195303 -53.667324
36.875031 10.708907 -53.39785
36.939201 11.211831 -53.078384
37.002201 11.708847 -52.737183
37.067554 12.216719 -52.448868
37.134377 12.731717 -52.190601
37.198746 13.234706 -51.882988
37.261963 13.731784 -51.554699
37.326393 14.234801 -51.250561
37.390713 14.737238 -50.944786
37.454224 15.235422 -50.624954
37.517483 15.73224 -50.301529
37.580566 16.228054 -49.975647
37.645283 16.732613 -49.676167
37.711712 17.246639 -49.402061
37.779854 17.770367 -49.150955
37.849403 18.302362 -48.916302
29.271044 -52.733032 -93.519974
29.411009 -51.693142 -93.309952
29.547956 -50.678112 -93.124878
29.681534 -49.691391 -92.97319
29.819592 -48.660088 -92.718353
29.95348 -47.664654 -92.511345
30.086216 -46.677059 -92.299988
30.214144 -45.732082 -92.154709
30.340479 -44.799713 -92.018219
30.469719 -43.836823 -91.801239
30.594248 -42.916451 -91.655518
30.718487 -41.996311 -91.493729
30.841478 -41.085716 -91.336143
30.959728 -40.219318 -91.262169
31.078892 -39.341702 -91.1492
31.199692 -38.44532 -90.977386
31.319458 -37.556656 -90.807388
31.437696 -36.680851 -90.65258
31.553528 -35.827271 -90.538177
31.667343 -34.992325 -90.458191
31.784779 -34.11726 -90.260109
31.895817 -33.307262 -90.220894
32.007725 -32.486225 -90.141541
32.122807 -31.62867 -89.947044
32.234943 -30.800537 -89.821465
32.345551 -29.987173 -89.726883
32.455429 -29.17993 -89.639725
32.565437 -28.369261 -89.531021
32.676819 -27.540207 -89.35096
32.786518 -26.728235 -89.212318
32.893585 -25.945715 -89.161865
33.024101 -24.870674 -88.068092
33.110783 -24.337154 -88.879433
33.229443 -23.397953 -88.210297
33.329964 -22.69076 -88.397331
33.434292 -21.933525 -88.393097
33.542816 -21.116154 -88.135597
33.650146 -20.311459 -87.912529
33.756714 -19.514044 -87.704308
33.866833 -18.655209 -87.192314
34.098427 -15.729486 -76.576118
34.193218 -14.993233 -76.16127
34.320763 -13.61542 -72.303795
34.427475 -12.549575 -69.817314
34.512363 -11.895669 -69.49192
34.596939 -11.237191 -69.108421
34.680737 -10.58403 -68.722015
34.763977 -9.9278574 -68.275635
34.846531 -9.2667513 -67.744652
34.927902 -8.6204672 -67.266891
35.008312 -7.9801731 -66.780762
35.087715 -7.3425922 -66.255577
35.166386 -6.7281623 -65.882355
35.243893 -6.1048536 -65.361633
35.319229 -5.4672322 -64.584618
35.394623 -4.863802 -64.102661
35.470448 -4.2798247 -63.813046
35.543533 -3.6823754 -63.239277
35.616219 -3.0966763 -62.741077
35.689186 -2.5221281 -62.355175
35.76289 -1.9557278 -62.084106
35.836433 -1.392009 -61.826271
35.904846 -0.82577246 -61.229786
35.971714 -0.26751056 -60.605579
36.038357 0.28246629 -60.038166
36.101799 0.82331151 -59.350723
36.161236 1.3513316 -58.525009
36.2229 1.8733075 -57.888519
36.29232 2.4036572 -57.660061
36.362217 2.9343891 -57.457706
36.431335 3.4629755 -57.225777
36.497425 3.9828324 -56.880795
36.563572 4.5011353 -56.552452
36.63221 5.0259743 -56.325466
36.701061 5.5511508 -56.105904
36.771751 6.0826526 -55.946125
36.841393 6.6108756 -55.74934
36.909374 7.1330581 -55.501686
36.976177 7.6504164 -55.222103
37.043659 8.1701164 -54.964603
37.110882 8.6885643 -54.701698
37.179375 9.2122955 -54.472382
37.243118 9.7153349 -54.1255
37.30756 10.220798 -53.801556
37.374004 10.734893 -53.527451
37.439651 11.245221 -53.236473
37.504929 11.753614 -52.938843
37.569897 12.260368 -52.636284
37.634769 12.766501 -52.333218
37.699131 13.269963 -52.021221
37.762833 13.769938 -51.697971
37.825016 14.261998 -51.348499
37.886715 14.751224 -50.993145
37.95018 15.249348 -50.671246
38.01635 15.761646 -50.395554
38.083855 16.281324 -50.139709
38.149727 16.792608 -49.854305
38.215992 17.30628 -49.572914
38.279533 17.805342 -49.247704
38.344879 18.314428 -48.948563
29.786167 -52.700649 -93.462555
29.928204 -51.641556 -93.216835
30.067429 -50.604736 -92.990005
30.201006 -49.617664 -92.83519
30.335833 -48.616219 -92.634712
30.470232 -47.6157 -92.416283
30.600449 -46.65163 -92.249664
30.728806 -45.702473 -92.094994
30.857849 -44.744003 -91.903732
30.985081 -43.800079 -91.724236
31.109241 -42.883038 -91.584091
31.23332 -41.964222 -91.423767
31.355999 -41.056461 -91.271057
31.474529 -40.187057 -91.188904
31.59199 -39.326191 -91.113197
31.714569 -38.411819 -90.898041
31.833733 -37.528965 -90.740372
31.952953 -36.642891 -90.558708
32.069611 -35.780434 -90.419754
32.182056 -34.959267 -90.372665
32.298668 -34.092571 -90.194725
32.411831 -33.259655 -90.091858
32.52282 -32.447994 -90.03537
32.636032 -31.610332 -89.894821
32.749031 -30.77244 -89.739449
32.859528 -29.959917 -89.645241
32.970291 -29.142239 -89.523857
33.08017 -28.332457 -89.414787
33.190403 -27.516294 -89.273293
33.299511 -26.710951 -89.154541
33.407139 -25.921257 -89.077728
33.595806 -24.123981 -85.423935
33.65593 -23.910564 -87.321426
33.770851 -23.009367 -86.745224
33.863209 -22.400726 -87.267326
33.948608 -21.895302 -88.238937
34.05616 -21.090473 -88.028297
34.162601 -20.297953 -87.853958
34.269337 -19.497379 -87.629295
34.377987 -18.661375 -87.221008
34.583927 -16.170097 -78.721024
34.692867 -15.20679 -77.245941
34.812794 -13.990966 -74.297958
34.938461 -12.561156 -69.881592
35.0233 -11.909509 -69.572609
35.108208 -11.244243 -69.151619
35.192253 -10.584649 -68.725853
35.275352 -9.9339638 -68.317444
35.357952 -9.2726641 -67.787682
35.43948 -8.6168947 -67.2388
35.519867 -7.9725361 -66.716629
35.599289 -7.3469944 -66.295059
35.677959 -6.7299132 -65.899231
35.755829 -6.1161637 -65.482437
35.831837 -5.4874091 -64.822647
35.907291 -4.8788347 -64.300423
35.982941 -4.2891011 -63.950954
36.056313 -3.6912923 -63.391949
36.127579 -3.0957611 -62.721996
36.201038 -2.5233529 -62.384773
36.274014 -1.9546595 -62.049328
36.346848 -1.3901048 -61.740475
36.417633 -0.82697344 -61.316837
36.48653 -0.26846716 -60.816082
36.555298 0.28394908 -60.359188
36.621002 0.82916313 -59.774513
36.68087 1.3609602 -58.943199
36.740616 1.8829656 -58.187801
36.810299 2.415875 -57.953815
36.880589 2.9493954 -57.752083
36.948208 3.4761109 -57.443306
37.017143 4.0049791 -57.197506
37.088665 4.5408473 -57.05175
37.155346 5.0621562 -56.730934
37.219448 5.5737181 -56.333961
37.288895 6.1020284 -56.124325
37.359566 6.6348939 -55.951866
37.431602 7.1734028 -55.815598
37.500278 7.6995463 -55.576729
37.564671 8.2083073 -55.221527
37.630089 8.7203321 -54.901695
37.698212 9.243331 -54.655869
37.76384 9.7553959 -54.348671
37.826534 10.25391 -53.975845
37.890575 10.757703 -53.641178
37.955204 11.263697 -53.323936
38.019333 11.766981 -52.999046
38.082466 12.265108 -52.656643
38.149338 12.781089 -52.393009
38.216698 13.299664 -52.137653
38.279106 13.793545 -51.786591
38.341217 14.285505 -51.433128
38.402248 14.771582 -51.063507
38.466602 15.274577 -50.75507
38.534794 15.797812 -50.511189
38.60331 16.323244 -50.268799
38.66959 16.83713 -49.986469
38.734097 17.341654 -49.67424
38.797478 17.840145 -49.343964
38.862259 18.346405 -49.034023
30.278868 -52.654449 -93.3806
30.418402 -51.618145 -93.174561
30.560373 -50.556263 -92.900963
30.690937 -49.596962 -92.796486
30.824699 -48.605358 -92.614052
30.958607 -47.609398 -92.404091
31.091599 -46.61908 -92.185333
31.220474 -45.664791 -92.019096
31.352116 -44.681293 -91.774963
31.4771 -43.758549 -91.637306
31.600636 -42.847294 -91.507797
31.724785 -41.927559 -91.343925
31.846632 -41.027721 -91.207199
31.965416 -40.15559 -91.117546
32.083771 -39.285576 -91.01915
32.205441 -38.380009 -90.822807
32.323952 -37.50351 -90.678871
32.443314 -36.615761 -90.491707
32.559349 -35.759438 -90.366737
32.672386 -34.931969 -90.302139
32.785927 -34.097256 -90.207169
32.900372 -33.250767 -90.067841
33.014496 -32.405243 -89.916801
33.126778 -31.577204 -89.800667
33.238495 -30.753044 -89.682945
33.349228 -29.937622 -89.57859
33.461388 -29.103788 -89.405792
33.571556 -28.290062 -89.281052
33.680939 -27.483112 -89.165703
33.789303 -26.68605 -89.071503
33.89674 -25.898169 -88.998451
34.086121 -24.091599 -85.309334
34.174091 -23.523933 -85.909523
34.28619 -22.649845 -85.389908
34.370518 -22.13875 -86.246819
34.439674 -21.849079 -88.05275
34.544498 -21.081467 -87.990791
34.650982 -20.287994 -87.810944
34.758797 -19.470425 -87.50824
34.866501 -18.648375 -87.160339
35.069271 -16.210032 -78.915543
35.171658 -15.36687 -78.059196
35.298115 -14.036812 -74.541519
35.422836 -12.630746 -70.268852
35.509575 -11.942489 -69.765388
35.600357 -11.128395 -68.439285
35.686661 -10.380424 -67.399956
35.764912 -9.8642435 -67.838097
35.845512 -9.2800837 -67.842064
35.927071 -8.6269398 -67.317337
36.007553 -7.9803381 -66.782082
36.087036 -7.3522406 -66.342575
36.165775 -6.7353082 -65.952255
36.24369 -6.120513 -65.529213
36.320705 -5.509213 -65.080452
36.396759 -4.9022126 -64.608788
36.468357 -4.2669358 -63.620758
36.538689 -3.6531985 -62.738087
36.612713 -3.0822008 -62.447647
36.686737 -2.5156748 -62.195446
36.758003 -1.944747 -61.735287
36.831062 -1.3840678 -61.473244
36.904667 -0.8263219 -61.27
36.973446 -0.26822358 -60.765522
37.041702 0.28360486 -60.28186
37.110733 0.8307355 -59.886463
37.176682 1.3706448 -59.361767
37.239849 1.9010634 -58.746449
37.305996 2.4310884 -58.318287
37.375145 2.9644856 -58.047146
37.44173 3.4904878 -57.680538
37.50782 4.0130472 -57.312412
37.579281 4.5494032 -57.159
37.649155 5.0812931 -56.945183
37.714241 5.5972571 -56.571682
37.781906 6.1205659 -56.294651
37.851471 6.6502156 -56.08091
37.924137 7.1917229 -55.957989
37.996277 7.7321429 -55.811859
38.063873 8.2549229 -55.534996
38.129131 8.7676535 -55.199493
38.194653 9.2807531 -54.877029
38.258694 9.7867718 -54.523369
38.322151 10.289389 -54.162495
38.385948 10.792797 -53.816067
38.45092 11.301076 -53.500797
38.513783 11.799009 -53.143204
38.57412 12.284173 -52.738396
38.636967 12.780742 -52.391499
38.705734 13.3063 -52.163582
38.770638 13.812821 -51.858883
38.833118 14.306925 -51.510178
38.900139 14.824153 -51.245178
38.966042 15.335831 -50.958538
39.032932 15.852866 -50.687145
39.096119 16.350454 -50.352535
39.162979 16.867743 -50.07729
39.229012 17.380812 -49.786335
39.292988 17.882912 -49.462193
39.357403 18.387505 -49.14381
30.789234 -52.631756 -93.340363
30.927517 -51.606884 -93.154236
31.067951 -50.559174 -92.906319
31.200829 -49.578373 -92.761719
31.335314 -48.579895 -92.565544
31.468004 -47.595249 -92.376633
31.602587 -46.589821 -92.127487
31.73238 -45.626663 -91.942276
31.861818 -44.663937 -91.739326
31.988106 -43.728607 -91.574615
32.111572 -42.817871 -91.444969
32.235252 -41.902454 -91.289246
32.357399 -40.999462 -91.144386
32.476921 -40.119884 -91.03653
32.596462 -39.237747 -90.908348
32.715736 -38.355854 -90.765663
32.833607 -37.485611 -90.635605
32.95126 -36.615173 -90.490265
33.068169 -35.749844 -90.342514
33.183361 -34.899834 -90.219086
33.29686 -34.065231 -90.122459
33.410698 -33.224876 -89.997726
33.52504 -32.376728 -89.837692
33.637722 -31.543943 -89.706093
33.747463 -30.741146 -89.648262
33.859119 -29.91523 -89.511604
33.971638 -29.077023 -89.323593
34.082188 -28.258493 -89.181442
34.191483 -27.452057 -89.064964
34.299614 -26.657164 -88.975098
34.407013 -25.869247 -88.899078
34.535038 -24.823511 -87.901077
34.632526 -24.151707 -88.202164
34.786079 -22.753977 -85.782494
34.898254 -21.873547 -85.213676
34.959446 -21.68553 -87.393654
35.053017 -21.072529 -87.953506
35.159969 -20.271803 -87.740883
35.267609 -19.456303 -87.444786
35.375843 -18.62509 -87.051537
35.536003 -16.906488 -82.306129
35.672131 -15.500135 -78.736176
35.80817 -13.995198 -74.320557
35.923897 -12.773451 -71.062782
36.014847 -12.002914 -70.118408
36.10421 -11.23363 -69.086502
36.196518 -10.320505 -67.010933
36.274738 -9.7915964 -67.338524
36.353252 -9.2878504 -67.89888
36.434849 -8.6364594 -67.391655
36.515404 -7.9970407 -66.92189
36.595036 -7.3653731 -66.461113
36.673912 -6.7472525 -66.06926
36.751888 -6.1291885 -65.622154
36.828438 -5.5062184 -65.045135
36.900459 -4.8465729 -63.875553
36.970856 -4.2147427 -62.842628
37.040733 -3.6114056 -62.020447
37.114887 -3.052098 -61.837856
37.190456 -2.4997611 -61.802135
37.262718 -1.9362851 -61.466846
37.337959 -1.3823506 -61.397213
37.410069 -0.82397103 -61.096054
37.480347 -0.26793748 -60.701847
37.549248 0.28351402 -60.261398
37.618698 0.83079529 -59.890465
37.686787 1.3732909 -59.476162
37.753979 1.9108471 -59.04866
37.821659 2.4458694 -58.672729
37.890297 2.9804542 -58.359737
37.958118 3.5114598 -58.027016
38.025276 4.038981 -57.682735
38.094284 4.5702534 -57.420891
38.1632 5.100585 -57.161316
38.231834 5.6294427 -56.896931
38.299786 6.1554036 -56.615028
38.367592 6.6802263 -56.333942
38.435211 7.2038054 -56.051952
38.504604 7.7338557 -55.824196
38.574154 8.2645521 -55.599876
38.643066 8.7928038 -55.357933
38.708336 9.3054991 -55.023445
38.772625 9.8132076 -54.670731
38.835526 10.313931 -54.291756
38.897942 10.81151 -53.909458
38.964539 11.327708 -53.626949
39.030762 11.84206 -53.337173
39.093037 12.337281 -52.966461
39.154968 12.830178 -52.594219
39.22036 13.339677 -52.294495
39.281857 13.82951 -51.921593
39.344166 14.322965 -51.567978
39.408321 14.82559 -51.250195
39.477982 15.356877 -51.028526
39.544647 15.872956 -50.751431
39.608021 16.371744 -50.418152
39.673264 16.880535 -50.115318
39.739555 17.395136 -49.827412
39.80611 17.911486 -49.54126
39.872864 18.429222 -49.255348
31.287685 -52.609478 -93.300827
31.428535 -51.560913 -93.071228
31.565788 -50.542377 -92.87542
31.702881 -49.522305 -92.656776
31.835682 -48.539276 -92.488121
31.967648 -47.561222 -92.310562
32.099998 -46.576694 -92.101486
32.231281 -45.599289 -91.887077
32.358822 -44.654556 -91.720024
32.486328 -43.707432 -91.530228
32.609749 -42.796951 -91.400253
32.73288 -41.886829 -91.255165
32.854424 -40.989647 -91.122528
32.975945 -40.090172 -90.96907
33.096249 -39.200241 -90.821411
33.213139 -38.341961 -90.732735
33.331623 -37.465431 -90.586769
33.449356 -36.593971 -90.43782
33.56636 -35.727482 -90.285957
33.682266 -34.869812 -90.141426
33.795841 -34.034069 -90.03997
33.910225 -33.187603 -89.896706
34.024006 -32.345062 -89.749771
34.137608 -31.501892 -89.586456
34.247566 -30.696129 -89.516922
34.357853 -29.884909 -89.420822
34.469414 -29.057104 -89.262352
34.58054 -28.231638 -89.096626
34.689407 -27.42975 -88.992538
34.797539 -26.634485 -88.899345
35.002697 -24.657755 -84.735748
35.083073 -24.177942 -85.615036
35.15836 -23.773279 -86.820084
35.239922 -23.302654 -87.850937
35.36618 -22.248983 -86.676201
35.449425 -21.768692 -87.728729
35.550739 -21.048346 -87.852486
35.657291 -20.252626 -87.657799
35.764694 -19.439985 -87.371368
35.872574 -18.613646 -86.997955
35.98045 -17.779089 -86.554123
36.167183 -15.517516 -78.824364
36.280716 -14.44705 -76.719986
36.419529 -12.781551 -71.10775
36.509125 -12.043164 -70.353432
36.595394 -11.359714 -69.861794
36.683239 -10.603925 -68.851051
36.76741 -9.9173708 -68.203377
36.849106 -9.2963791 -67.96109
36.930759 -8.6460514 -67.466354
37.011402 -8.0054884 -66.992432
37.091164 -7.3792162 -66.585854
37.170208 -6.7607598 -66.20134
37.248425 -6.1438947 -65.779396
37.325539 -5.5265188 -65.284721
37.396553 -4.8475928 -63.888741
37.464783 -4.1945591 -62.541393
37.538857 -3.6264784 -62.278973
37.613991 -3.0683675 -62.167091
37.686806 -2.5010333 -61.833107
37.763252 -1.9483322 -61.848652
37.841541 -1.3953934 -61.975643
37.911171 -0.82877958 -61.451183
37.979053 -0.26871711 -60.874374
38.045975 0.28369397 -60.303547
38.11414 0.83033401 -59.858616
38.182751 1.3732049 -59.473343
38.253609 1.9164858 -59.223495
38.326481 2.4625888 -59.074272
38.394939 2.9994075 -58.731251
38.463066 3.5334675 -58.39101
38.530918 4.0650449 -58.055233
38.59853 4.5943437 -57.723824
38.666908 5.1246529 -57.431252
38.735821 5.6558628 -57.164154
38.80336 6.1817455 -56.857483
38.872124 6.7112465 -56.595699
38.940197 7.2377772 -56.316425
39.008121 7.7632847 -56.036755
39.075577 8.2864981 -55.747528
39.143845 8.8126917 -55.483158
39.21069 9.3326597 -55.18404
39.275642 9.843955 -54.842014
39.338703 10.346072 -54.460949
39.400146 10.839866 -54.050842
39.46323 11.340229 -53.686222
39.529259 11.853881 -53.390415
39.594231 12.362292 -53.073845
39.659466 12.871769 -52.764709
39.720821 13.361797 -52.38121
39.781769 13.849162 -51.995377
39.844139 14.343183 -51.640762
39.910355 14.85669 -51.3577
39.976849 15.371803 -51.078117
40.044403 15.892722 -50.814636
40.110519 16.406317 -50.524609
40.176537 16.919611 -50.231327
40.239738 17.417809 -49.892365
40.305115 17.927893 -49.586655
40.375992 18.46854 -49.360447
31.788301 -52.568691 -93.228516
31.930626 -51.506325 -92.972725
32.068207 -50.484501 -92.769096
32.204399 -49.472534 -92.56369
32.336288 -48.497738 -92.409004
32.470039 -47.502686 -92.196968
32.596836 -46.570271 -92.088814
32.730461 -45.570583 -91.829262
32.856888 -44.636353 -91.682663
32.984905 -43.684311 -91.481812
33.108879 -42.768364 -91.33918
33.232883 -41.849491 -91.173813
33.352352 -40.972412 -91.084221
33.472328 -40.088135 -90.964447
33.595444 -39.170113 -90.751595
33.711338 -38.321636 -90.684647
33.830742 -37.435574 -90.514565
33.948143 -36.567284 -90.371857
34.066414 -35.687469 -90.184837
